13.500      13.500      13.500      13.500      13.500      13.500      13.500      13.500      13.500      13.500      13.500      13.500      13.500      13.500      13.500      13.500      13.500      13.500      13.500      13.500      13.500      13.500      13.500      13.500      13.500      13.500      13.500      13.500      13.500      13.500      13.500      13.400      13.300      13.300      13.200      13.100      13.000      13.000      12.900      12.800      12.800      12.700      12.600      12.600      12.500      12.500      12.400      12.400      12.400      12.300      12.300      12.200      12.200      12.200      12.100      12.100      12.000      12.000      12.000      11.900      11.900      11.800      11.800      11.800      11.700      11.700      11.600      11.600      11.600      11.500      11.500      11.400      11.400      11.400      11.300      11.300      11.200      11.200      11.200      11.100      11.100      11.000      11.000      11.000      10.900      10.900      10.800      10.800      10.800      10.700      10.700      10.600      10.600      10.600      10.500      10.500      10.400      10.400      10.400      10.300      10.300      10.200      10.200      10.200      10.100      10.100      10.000      10.000       9.960       9.920       9.880       9.840       9.800       9.760       9.720       9.680       9.640       9.600       9.560       9.520       9.480       9.440       9.400       9.360       9.320       9.280       9.240       9.200       9.160       9.120       9.080       9.040       9.000       8.960       8.920       8.880       8.840       8.800       8.760       8.720       8.680       8.640       8.600       8.560       8.520       8.480       8.440       8.400       8.360       8.320       8.280       8.240       8.200       8.160       8.120       8.080       8.040       8.000       7.960       7.920       7.880       7.840       7.800       7.760       7.720       7.680       7.640       7.610       7.570       7.540       7.500       6.600       6.570       6.530       6.500       6.460       6.430       6.390       6.360       6.320       6.290       6.250       6.220       6.180       6.150       6.110       6.080       6.040       6.010       5.970       5.940       5.900       5.870       5.830       5.800       5.760       5.730       5.690       5.660       5.620       5.590       5.550       5.520       5.480       5.450       5.410       5.380       5.340       5.310       5.270       5.240       5.200       5.170       5.130       5.100       5.060       5.030       4.990       4.960       4.920       4.890       4.850       4.820       4.780       4.750       4.710       4.680       4.640       4.540       4.430       4.320       4.210       4.100       3.990       3.870       3.760       3.650       3.540       3.440       3.340       3.240       3.150       3.060       2.980       2.900       2.820       2.750       2.670
13.500      13.500      13.500      13.500      13.500      13.500      13.500      13.500      13.500      13.500      13.500      13.500      13.500      13.500      13.500      13.500      13.500      13.500      13.500      13.500      13.500      13.500      13.500      13.500      13.500      13.500      13.500      13.500      13.500      13.500      13.500      13.400      13.300      13.300      13.200      13.100      13.000      13.000      12.900      12.800      12.800      12.700      12.600      12.600      12.500      12.500      12.400      12.400      12.400      12.300      12.300      12.200      12.200      12.200      12.100      12.100      12.000      12.000      12.000      11.900      11.900      11.800      11.800      11.800      11.700      11.700      11.600      11.600      11.600      11.500      11.500      11.400      11.400      11.400      11.300      11.300      11.200      11.200      11.200      11.100      11.100      11.000      11.000      11.000      10.900      10.900      10.800      10.800      10.800      10.700      10.700      10.600      10.600      10.600      10.500      10.500      10.400      10.400      10.400      10.300      10.300      10.200      10.200      10.200      10.100      10.100      10.000      10.000       9.960       9.920       9.880       9.840       9.800       9.760       9.720       9.680       9.640       9.600       9.560       9.520       9.480       9.440       9.400       9.360       9.320       9.280       9.240       9.200       9.160       9.120       9.080       9.040       9.000       8.960       8.920       8.880       8.840       8.800       8.760       8.720       8.680       8.640       8.600       8.560       8.520       8.480       8.440       8.400       8.360       8.320       8.280       8.240       8.200       8.160       8.120       8.080       8.040       8.000       7.960       7.920       7.880       7.840       7.800       7.760       7.720       7.680       7.640       7.610       7.570       7.540       7.500       6.590       6.560       6.520       6.490       6.450       6.420       6.380       6.350       6.310       6.280       6.240       6.210       6.170       6.140       6.100       6.070       6.030       6.000       5.960       5.930       5.890       5.860       5.820       5.790       5.750       5.720       5.680       5.650       5.610       5.580       5.540       5.510       5.470       5.440       5.400       5.370       5.330       5.300       5.260       5.230       5.190       5.160       5.120       5.090       5.050       5.020       4.980       4.950       4.910       4.880       4.840       4.810       4.770       4.740       4.700       4.670       4.630       4.530       4.420       4.310       4.200       4.090       3.980       3.860       3.750       3.640       3.530       3.430       3.330       3.230       3.140       3.050       2.970       2.880       2.810       2.740       2.670
13.500      13.500      13.500      13.500      13.500      13.500      13.500      13.500      13.500      13.500      13.500      13.500      13.500      13.500      13.500      13.500      13.500      13.500      13.500      13.500      13.500      13.500      13.500      13.500      13.500      13.500      13.500      13.500      13.500      13.500      13.500      13.400      13.300      13.300      13.200      13.100      13.000      13.000      12.900      12.800      12.800      12.700      12.600      12.600      12.500      12.500      12.400      12.400      12.400      12.300      12.300      12.200      12.200      12.200      12.100      12.100      12.000      12.000      12.000      11.900      11.900      11.800      11.800      11.800      11.700      11.700      11.600      11.600      11.600      11.500      11.500      11.400      11.400      11.400      11.300      11.300      11.200      11.200      11.200      11.100      11.100      11.000      11.000      11.000      10.900      10.900      10.800      10.800      10.800      10.700      10.700      10.600      10.600      10.600      10.500      10.500      10.400      10.400      10.400      10.300      10.300      10.200      10.200      10.200      10.100      10.100      10.000      10.000       9.960       9.920       9.880       9.840       9.800       9.760       9.720       9.680       9.640       9.600       9.560       9.520       9.480       9.440       9.400       9.360       9.320       9.280       9.240       9.200       9.160       9.120       9.080       9.040       9.000       8.960       8.920       8.880       8.840       8.800       8.760       8.720       8.680       8.640       8.600       8.560       8.520       8.480       8.440       8.400       8.360       8.320       8.280       8.240       8.200       8.160       8.120       8.080       8.040       8.000       7.960       7.920       7.880       7.840       7.800       7.760       7.720       7.680       7.640       7.610       7.570       7.540       7.500       6.580       6.550       6.510       6.480       6.440       6.410       6.370       6.340       6.300       6.270       6.230       6.200       6.160       6.130       6.090       6.060       6.020       5.990       5.950       5.920       5.880       5.850       5.810       5.780       5.740       5.710       5.670       5.640       5.600       5.570       5.530       5.500       5.460       5.430       5.390       5.360       5.320       5.290       5.250       5.220       5.180       5.150       5.110       5.080       5.040       5.010       4.970       4.940       4.900       4.870       4.830       4.800       4.760       4.730       4.690       4.660       4.620       4.520       4.410       4.300       4.190       4.080       3.960       3.850       3.740       3.630       3.520       3.420       3.320       3.220       3.130       3.040       2.950       2.870       2.800       2.720       2.650
13.500      13.500      13.500      13.500      13.500      13.500      13.500      13.500      13.500      13.500      13.500      13.500      13.500      13.500      13.500      13.500      13.500      13.500      13.500      13.500      13.500      13.500      13.500      13.500      13.500      13.500      13.500      13.500      13.500      13.500      13.500      13.400      13.300      13.300      13.200      13.100      13.000      13.000      12.900      12.800      12.800      12.700      12.600      12.600      12.500      12.500      12.400      12.400      12.400      12.300      12.300      12.200      12.200      12.200      12.100      12.100      12.000      12.000      12.000      11.900      11.900      11.800      11.800      11.800      11.700      11.700      11.600      11.600      11.600      11.500      11.500      11.400      11.400      11.400      11.300      11.300      11.200      11.200      11.200      11.100      11.100      11.000      11.000      11.000      10.900      10.900      10.800      10.800      10.800      10.700      10.700      10.600      10.600      10.600      10.500      10.500      10.400      10.400      10.400      10.300      10.300      10.200      10.200      10.200      10.100      10.100      10.000      10.000       9.960       9.920       9.880       9.840       9.800       9.760       9.720       9.680       9.640       9.600       9.560       9.520       9.480       9.440       9.400       9.360       9.320       9.280       9.240       9.200       9.160       9.120       9.080       9.040       9.000       8.960       8.920       8.880       8.840       8.800       8.760       8.720       8.680       8.640       8.600       8.560       8.520       8.480       8.440       8.400       8.360       8.320       8.280       8.240       8.200       8.160       8.120       8.080       8.040       8.000       7.960       7.920       7.880       7.840       7.800       7.760       7.720       7.680       7.640       7.610       7.570       7.540       7.500       6.570       6.540       6.500       6.470       6.430       6.400       6.360       6.330       6.290       6.260       6.220       6.190       6.150       6.120       6.080       6.050       6.010       5.980       5.940       5.910       5.870       5.840       5.800       5.770       5.730       5.700       5.660       5.630       5.590       5.560       5.520       5.490       5.450       5.420       5.380       5.350       5.310       5.280       5.240       5.210       5.170       5.140       5.100       5.070       5.030       5.000       4.960       4.930       4.890       4.860       4.820       4.790       4.750       4.720       4.680       4.650       4.610       4.510       4.400       4.290       4.180       4.070       3.950       3.840       3.730       3.620       3.510       3.400       3.300       3.210       3.120       3.030       2.940       2.860       2.790       2.710       2.640
13.500      13.500      13.500      13.500      13.500      13.500      13.500      13.500      13.500      13.500      13.500      13.500      13.500      13.500      13.500      13.500      13.500      13.500      13.500      13.500      13.500      13.500      13.500      13.500      13.500      13.500      13.500      13.500      13.500      13.500      13.500      13.400      13.300      13.300      13.200      13.100      13.000      13.000      12.900      12.800      12.800      12.700      12.600      12.600      12.500      12.500      12.400      12.400      12.400      12.300      12.300      12.200      12.200      12.200      12.100      12.100      12.000      12.000      12.000      11.900      11.900      11.800      11.800      11.800      11.700      11.700      11.600      11.600      11.600      11.500      11.500      11.400      11.400      11.400      11.300      11.300      11.200      11.200      11.200      11.100      11.100      11.000      11.000      11.000      10.900      10.900      10.800      10.800      10.800      10.700      10.700      10.600      10.600      10.600      10.500      10.500      10.400      10.400      10.400      10.300      10.300      10.200      10.200      10.200      10.100      10.100      10.000      10.000       9.960       9.920       9.880       9.840       9.800       9.760       9.720       9.680       9.640       9.600       9.560       9.520       9.480       9.440       9.400       9.360       9.320       9.280       9.240       9.200       9.160       9.120       9.080       9.040       9.000       8.960       8.920       8.880       8.840       8.800       8.760       8.720       8.680       8.640       8.600       8.560       8.520       8.480       8.440       8.400       8.360       8.320       8.280       8.240       8.200       8.160       8.120       8.080       8.040       8.000       7.960       7.920       7.880       7.840       7.800       7.760       7.720       7.680       7.640       7.610       7.570       7.540       7.500       6.570       6.530       6.500       6.460       6.430       6.390       6.360       6.320       6.290       6.250       6.220       6.180       6.150       6.110       6.080       6.040       6.010       5.970       5.940       5.900       5.870       5.830       5.800       5.760       5.730       5.690       5.660       5.620       5.590       5.550       5.520       5.480       5.450       5.410       5.380       5.340       5.310       5.270       5.240       5.200       5.170       5.130       5.100       5.060       5.030       4.990       4.960       4.920       4.890       4.850       4.820       4.780       4.750       4.710       4.680       4.640       4.610       4.500       4.390       4.280       4.170       4.060       3.940       3.830       3.720       3.610       3.500       3.390       3.290       3.200       3.100       3.010       2.930       2.850       2.770       2.700       2.630
13.500      13.500      13.500      13.500      13.500      13.500      13.500      13.500      13.500      13.500      13.500      13.500      13.500      13.500      13.500      13.500      13.500      13.500      13.500      13.500      13.500      13.500      13.500      13.500      13.500      13.500      13.500      13.500      13.500      13.500      13.500      13.400      13.300      13.300      13.200      13.100      13.000      13.000      12.900      12.800      12.800      12.700      12.600      12.600      12.500      12.500      12.400      12.400      12.400      12.300      12.300      12.200      12.200      12.200      12.100      12.100      12.000      12.000      12.000      11.900      11.900      11.800      11.800      11.800      11.700      11.700      11.600      11.600      11.600      11.500      11.500      11.400      11.400      11.400      11.300      11.300      11.200      11.200      11.200      11.100      11.100      11.000      11.000      11.000      10.900      10.900      10.800      10.800      10.800      10.700      10.700      10.600      10.600      10.600      10.500      10.500      10.400      10.400      10.400      10.300      10.300      10.200      10.200      10.200      10.100      10.100      10.000      10.000       9.960       9.920       9.880       9.840       9.800       9.760       9.720       9.680       9.640       9.600       9.560       9.520       9.480       9.440       9.400       9.360       9.320       9.280       9.240       9.200       9.160       9.120       9.080       9.040       9.000       8.960       8.920       8.880       8.840       8.800       8.760       8.720       8.680       8.640       8.600       8.560       8.520       8.480       8.440       8.400       8.360       8.320       8.280       8.240       8.200       8.160       8.120       8.080       8.040       8.000       7.960       7.920       7.880       7.840       7.800       7.760       7.720       7.680       7.640       7.610       7.570       7.540       7.500       6.560       6.520       6.490       6.450       6.420       6.380       6.350       6.310       6.280       6.240       6.210       6.170       6.140       6.100       6.070       6.030       6.000       5.960       5.930       5.890       5.860       5.820       5.790       5.750       5.720       5.680       5.650       5.610       5.580       5.540       5.510       5.470       5.440       5.400       5.370       5.330       5.300       5.260       5.230       5.190       5.160       5.120       5.090       5.050       5.020       4.980       4.950       4.910       4.880       4.840       4.810       4.770       4.740       4.700       4.670       4.630       4.600       4.490       4.390       4.280       4.160       4.050       3.930       3.820       3.710       3.590       3.490       3.380       3.280       3.180       3.090       3.000       2.920       2.840       2.760       2.690       2.620
13.500      13.500      13.500      13.500      13.500      13.500      13.500      13.500      13.500      13.500      13.500      13.500      13.500      13.500      13.500      13.500      13.500      13.500      13.500      13.500      13.500      13.500      13.500      13.500      13.500      13.500      13.500      13.500      13.500      13.500      13.500      13.400      13.300      13.300      13.200      13.100      13.000      13.000      12.900      12.800      12.800      12.700      12.600      12.600      12.500      12.500      12.400      12.400      12.400      12.300      12.300      12.200      12.200      12.200      12.100      12.100      12.000      12.000      12.000      11.900      11.900      11.800      11.800      11.800      11.700      11.700      11.600      11.600      11.600      11.500      11.500      11.400      11.400      11.400      11.300      11.300      11.200      11.200      11.200      11.100      11.100      11.000      11.000      11.000      10.900      10.900      10.800      10.800      10.800      10.700      10.700      10.600      10.600      10.600      10.500      10.500      10.400      10.400      10.400      10.300      10.300      10.200      10.200      10.200      10.100      10.100      10.000      10.000       9.960       9.920       9.880       9.840       9.800       9.760       9.720       9.680       9.640       9.600       9.560       9.520       9.480       9.440       9.400       9.360       9.320       9.280       9.240       9.200       9.160       9.120       9.080       9.040       9.000       8.960       8.920       8.880       8.840       8.800       8.760       8.720       8.680       8.640       8.600       8.560       8.520       8.480       8.440       8.400       8.360       8.320       8.280       8.240       8.200       8.160       8.120       8.080       8.040       8.000       7.960       7.920       7.880       7.840       7.800       7.760       7.720       7.680       7.640       7.610       7.570       7.540       7.500       6.550       6.520       6.480       6.450       6.410       6.380       6.340       6.310       6.270       6.240       6.200       6.170       6.130       6.100       6.060       6.030       5.990       5.960       5.920       5.890       5.850       5.820       5.780       5.750       5.710       5.680       5.640       5.610       5.570       5.540       5.500       5.470       5.430       5.400       5.360       5.330       5.290       5.260       5.220       5.190       5.150       5.120       5.080       5.050       5.010       4.980       4.940       4.910       4.870       4.840       4.800       4.770       4.730       4.700       4.660       4.630       4.590       4.490       4.380       4.270       4.150       4.040       3.920       3.810       3.700       3.580       3.480       3.370       3.270       3.170       3.080       2.990       2.900       2.820       2.750       2.680       2.610
13.500      13.500      13.500      13.500      13.500      13.500      13.500      13.500      13.500      13.500      13.500      13.500      13.500      13.500      13.500      13.500      13.500      13.500      13.500      13.500      13.500      13.500      13.500      13.500      13.500      13.500      13.500      13.500      13.500      13.500      13.500      13.400      13.300      13.300      13.200      13.100      13.000      13.000      12.900      12.800      12.800      12.700      12.600      12.600      12.500      12.500      12.400      12.400      12.400      12.300      12.300      12.200      12.200      12.200      12.100      12.100      12.000      12.000      12.000      11.900      11.900      11.800      11.800      11.800      11.700      11.700      11.600      11.600      11.600      11.500      11.500      11.400      11.400      11.400      11.300      11.300      11.200      11.200      11.200      11.100      11.100      11.000      11.000      11.000      10.900      10.900      10.800      10.800      10.800      10.700      10.700      10.600      10.600      10.600      10.500      10.500      10.400      10.400      10.400      10.300      10.300      10.200      10.200      10.200      10.100      10.100      10.000      10.000       9.960       9.920       9.880       9.840       9.800       9.760       9.720       9.680       9.640       9.600       9.560       9.520       9.480       9.440       9.400       9.360       9.320       9.280       9.240       9.200       9.160       9.120       9.080       9.040       9.000       8.960       8.920       8.880       8.840       8.800       8.760       8.720       8.680       8.640       8.600       8.560       8.520       8.480       8.440       8.400       8.360       8.320       8.280       8.240       8.200       8.160       8.120       8.080       8.040       8.000       7.960       7.920       7.880       7.840       7.800       7.760       7.720       7.680       7.640       7.610       7.570       7.540       7.500       6.550       6.510       6.480       6.440       6.410       6.370       6.340       6.300       6.270       6.230       6.200       6.160       6.130       6.090       6.060       6.020       5.990       5.950       5.920       5.880       5.850       5.810       5.780       5.740       5.710       5.670       5.640       5.600       5.570       5.530       5.500       5.460       5.430       5.390       5.360       5.320       5.290       5.250       5.220       5.180       5.150       5.110       5.080       5.040       5.010       4.970       4.940       4.900       4.870       4.830       4.800       4.760       4.730       4.690       4.660       4.620       4.590       4.480       4.370       4.260       4.150       4.030       3.920       3.800       3.690       3.570       3.470       3.360       3.260       3.160       3.070       2.980       2.890       2.810       2.740       2.660       2.600
13.500      13.500      13.500      13.500      13.500      13.500      13.500      13.500      13.500      13.500      13.500      13.500      13.500      13.500      13.500      13.500      13.500      13.500      13.500      13.500      13.500      13.500      13.500      13.500      13.500      13.500      13.500      13.500      13.500      13.500      13.500      13.400      13.300      13.300      13.200      13.100      13.000      13.000      12.900      12.800      12.800      12.700      12.600      12.600      12.500      12.500      12.400      12.400      12.400      12.300      12.300      12.200      12.200      12.200      12.100      12.100      12.000      12.000      12.000      11.900      11.900      11.800      11.800      11.800      11.700      11.700      11.600      11.600      11.600      11.500      11.500      11.400      11.400      11.400      11.300      11.300      11.200      11.200      11.200      11.100      11.100      11.000      11.000      11.000      10.900      10.900      10.800      10.800      10.800      10.700      10.700      10.600      10.600      10.600      10.500      10.500      10.400      10.400      10.400      10.300      10.300      10.200      10.200      10.200      10.100      10.100      10.000      10.000       9.960       9.920       9.880       9.840       9.800       9.760       9.720       9.680       9.640       9.600       9.560       9.520       9.480       9.440       9.400       9.360       9.320       9.280       9.240       9.200       9.160       9.120       9.080       9.040       9.000       8.960       8.920       8.880       8.840       8.800       8.760       8.720       8.680       8.640       8.600       8.560       8.520       8.480       8.440       8.400       8.360       8.320       8.280       8.240       8.200       8.160       8.120       8.080       8.040       8.000       7.960       7.920       7.880       7.840       7.800       7.760       7.720       7.680       7.640       7.610       7.570       7.540       7.500       6.540       6.510       6.470       6.440       6.400       6.370       6.330       6.300       6.260       6.230       6.190       6.160       6.120       6.090       6.050       6.020       5.980       5.950       5.910       5.880       5.840       5.810       5.770       5.740       5.700       5.670       5.630       5.600       5.560       5.530       5.490       5.460       5.420       5.390       5.350       5.320       5.280       5.250       5.210       5.180       5.140       5.110       5.070       5.040       5.000       4.970       4.930       4.900       4.860       4.830       4.790       4.760       4.720       4.690       4.650       4.620       4.580       4.470       4.360       4.250       4.140       4.020       3.910       3.790       3.680       3.560       3.450       3.350       3.250       3.150       3.050       2.960       2.880       2.800       2.720       2.650       2.580
13.500      13.500      13.500      13.500      13.500      13.500      13.500      13.500      13.500      13.500      13.500      13.500      13.500      13.500      13.500      13.500      13.500      13.500      13.500      13.500      13.500      13.500      13.500      13.500      13.500      13.500      13.500      13.500      13.500      13.500      13.500      13.400      13.300      13.300      13.200      13.100      13.000      13.000      12.900      12.800      12.800      12.700      12.600      12.600      12.500      12.500      12.400      12.400      12.400      12.300      12.300      12.200      12.200      12.200      12.100      12.100      12.000      12.000      12.000      11.900      11.900      11.800      11.800      11.800      11.700      11.700      11.600      11.600      11.600      11.500      11.500      11.400      11.400      11.400      11.300      11.300      11.200      11.200      11.200      11.100      11.100      11.000      11.000      11.000      10.900      10.900      10.800      10.800      10.800      10.700      10.700      10.600      10.600      10.600      10.500      10.500      10.400      10.400      10.400      10.300      10.300      10.200      10.200      10.200      10.100      10.100      10.000      10.000       9.960       9.920       9.880       9.840       9.800       9.760       9.720       9.680       9.640       9.600       9.560       9.520       9.480       9.440       9.400       9.360       9.320       9.280       9.240       9.200       9.160       9.120       9.080       9.040       9.000       8.960       8.920       8.880       8.840       8.800       8.760       8.720       8.680       8.640       8.600       8.560       8.520       8.480       8.440       8.400       8.360       8.320       8.280       8.240       8.200       8.160       8.120       8.080       8.040       8.000       7.960       7.920       7.880       7.840       7.800       7.760       7.720       7.680       7.640       7.610       7.570       7.540       7.500       6.540       6.500       6.470       6.430       6.400       6.360       6.330       6.290       6.260       6.220       6.190       6.150       6.120       6.080       6.050       6.010       5.980       5.940       5.910       5.870       5.840       5.800       5.770       5.730       5.700       5.660       5.630       5.590       5.560       5.520       5.490       5.450       5.420       5.380       5.350       5.310       5.280       5.240       5.210       5.170       5.140       5.100       5.070       5.030       5.000       4.960       4.930       4.890       4.860       4.820       4.790       4.750       4.720       4.680       4.650       4.610       4.580       4.470       4.360       4.250       4.130       4.020       3.900       3.780       3.670       3.550       3.440       3.340       3.230       3.140       3.040       2.950       2.870       2.790       2.710       2.640       2.570
13.500      13.500      13.500      13.500      13.500      13.500      13.500      13.500      13.500      13.500      13.500      13.500      13.500      13.500      13.500      13.500      13.500      13.500      13.500      13.500      13.500      13.500      13.500      13.500      13.500      13.500      13.500      13.500      13.500      13.500      13.500      13.400      13.300      13.300      13.200      13.100      13.000      13.000      12.900      12.800      12.800      12.700      12.600      12.600      12.500      12.500      12.400      12.400      12.400      12.300      12.300      12.200      12.200      12.200      12.100      12.100      12.000      12.000      12.000      11.900      11.900      11.800      11.800      11.800      11.700      11.700      11.600      11.600      11.600      11.500      11.500      11.400      11.400      11.400      11.300      11.300      11.200      11.200      11.200      11.100      11.100      11.000      11.000      11.000      10.900      10.900      10.800      10.800      10.800      10.700      10.700      10.600      10.600      10.600      10.500      10.500      10.400      10.400      10.400      10.300      10.300      10.200      10.200      10.200      10.100      10.100      10.000      10.000       9.960       9.920       9.880       9.840       9.800       9.760       9.720       9.680       9.640       9.600       9.560       9.520       9.480       9.440       9.400       9.360       9.320       9.280       9.240       9.200       9.160       9.120       9.080       9.040       9.000       8.960       8.920       8.880       8.840       8.800       8.760       8.720       8.680       8.640       8.600       8.560       8.520       8.480       8.440       8.400       8.360       8.320       8.280       8.240       8.200       8.160       8.120       8.080       8.040       8.000       7.960       7.920       7.880       7.840       7.800       7.760       7.720       7.680       7.640       7.610       7.570       7.540       7.500       6.530       6.500       6.460       6.430       6.390       6.360       6.320       6.290       6.250       6.220       6.180       6.150       6.110       6.080       6.040       6.010       5.970       5.940       5.900       5.870       5.830       5.800       5.760       5.730       5.690       5.660       5.620       5.590       5.550       5.520       5.480       5.450       5.410       5.380       5.340       5.310       5.270       5.240       5.200       5.170       5.130       5.100       5.060       5.030       4.990       4.960       4.920       4.890       4.850       4.820       4.780       4.750       4.710       4.680       4.640       4.610       4.570       4.470       4.350       4.240       4.130       4.010       3.890       3.770       3.660       3.550       3.440       3.330       3.220       3.130       3.030       2.940       2.860       2.780       2.700       2.630       2.560
13.500      13.500      13.500      13.500      13.500      13.500      13.500      13.500      13.500      13.500      13.500      13.500      13.500      13.500      13.500      13.500      13.500      13.500      13.500      13.500      13.500      13.500      13.500      13.500      13.500      13.500      13.500      13.500      13.500      13.500      13.500      13.400      13.300      13.300      13.200      13.100      13.000      13.000      12.900      12.800      12.800      12.700      12.600      12.600      12.500      12.500      12.400      12.400      12.400      12.300      12.300      12.200      12.200      12.200      12.100      12.100      12.000      12.000      12.000      11.900      11.900      11.800      11.800      11.800      11.700      11.700      11.600      11.600      11.600      11.500      11.500      11.400      11.400      11.400      11.300      11.300      11.200      11.200      11.200      11.100      11.100      11.000      11.000      11.000      10.900      10.900      10.800      10.800      10.800      10.700      10.700      10.600      10.600      10.600      10.500      10.500      10.400      10.400      10.400      10.300      10.300      10.200      10.200      10.200      10.100      10.100      10.000      10.000       9.960       9.920       9.880       9.840       9.800       9.760       9.720       9.680       9.640       9.600       9.560       9.520       9.480       9.440       9.400       9.360       9.320       9.280       9.240       9.200       9.160       9.120       9.080       9.040       9.000       8.960       8.920       8.880       8.840       8.800       8.760       8.720       8.680       8.640       8.600       8.560       8.520       8.480       8.440       8.400       8.360       8.320       8.280       8.240       8.200       8.160       8.120       8.080       8.040       8.000       7.960       7.920       7.880       7.840       7.800       7.760       7.720       7.680       7.640       7.610       7.570       7.540       7.500       6.530       6.500       6.460       6.430       6.390       6.360       6.320       6.290       6.250       6.220       6.180       6.150       6.110       6.080       6.040       6.010       5.970       5.940       5.900       5.870       5.830       5.800       5.760       5.730       5.690       5.660       5.620       5.590       5.550       5.520       5.480       5.450       5.410       5.380       5.340       5.310       5.270       5.240       5.200       5.170       5.130       5.100       5.060       5.030       4.990       4.960       4.920       4.890       4.850       4.820       4.780       4.750       4.710       4.680       4.640       4.610       4.570       4.460       4.350       4.240       4.120       4.000       3.890       3.770       3.650       3.540       3.430       3.320       3.210       3.120       3.020       2.930       2.840       2.760       2.690       2.610       2.550
13.500      13.500      13.500      13.500      13.500      13.500      13.500      13.500      13.500      13.500      13.500      13.500      13.500      13.500      13.500      13.500      13.500      13.500      13.500      13.500      13.500      13.500      13.500      13.500      13.500      13.500      13.500      13.500      13.500      13.500      13.500      13.400      13.300      13.300      13.200      13.100      13.000      13.000      12.900      12.800      12.800      12.700      12.600      12.600      12.500      12.500      12.400      12.400      12.400      12.300      12.300      12.200      12.200      12.200      12.100      12.100      12.000      12.000      12.000      11.900      11.900      11.800      11.800      11.800      11.700      11.700      11.600      11.600      11.600      11.500      11.500      11.400      11.400      11.400      11.300      11.300      11.200      11.200      11.200      11.100      11.100      11.000      11.000      11.000      10.900      10.900      10.800      10.800      10.800      10.700      10.700      10.600      10.600      10.600      10.500      10.500      10.400      10.400      10.400      10.300      10.300      10.200      10.200      10.200      10.100      10.100      10.000      10.000       9.960       9.920       9.880       9.840       9.800       9.760       9.720       9.680       9.640       9.600       9.560       9.520       9.480       9.440       9.400       9.360       9.320       9.280       9.240       9.200       9.160       9.120       9.080       9.040       9.000       8.960       8.920       8.880       8.840       8.800       8.760       8.720       8.680       8.640       8.600       8.560       8.520       8.480       8.440       8.400       8.360       8.320       8.280       8.240       8.200       8.160       8.120       8.080       8.040       8.000       7.960       7.920       7.880       7.840       7.800       7.760       7.720       7.680       7.640       7.610       7.570       7.540       7.500       6.530       6.490       6.460       6.420       6.390       6.350       6.320       6.280       6.250       6.210       6.180       6.140       6.110       6.070       6.040       6.000       5.970       5.930       5.900       5.860       5.830       5.790       5.760       5.720       5.690       5.650       5.620       5.580       5.550       5.510       5.480       5.440       5.410       5.370       5.340       5.300       5.270       5.230       5.200       5.160       5.130       5.090       5.060       5.020       4.990       4.950       4.920       4.880       4.850       4.810       4.780       4.740       4.710       4.670       4.640       4.600       4.570       4.460       4.350       4.230       4.120       4.000       3.880       3.760       3.650       3.530       3.420       3.310       3.210       3.100       3.010       2.920       2.830       2.750       2.670       2.600       2.530
13.500      13.500      13.500      13.500      13.500      13.500      13.500      13.500      13.500      13.500      13.500      13.500      13.500      13.500      13.500      13.500      13.500      13.500      13.500      13.500      13.500      13.500      13.500      13.500      13.500      13.500      13.500      13.500      13.500      13.500      13.500      13.400      13.300      13.300      13.200      13.100      13.000      13.000      12.900      12.800      12.800      12.700      12.600      12.600      12.500      12.500      12.400      12.400      12.400      12.300      12.300      12.200      12.200      12.200      12.100      12.100      12.000      12.000      12.000      11.900      11.900      11.800      11.800      11.800      11.700      11.700      11.600      11.600      11.600      11.500      11.500      11.400      11.400      11.400      11.300      11.300      11.200      11.200      11.200      11.100      11.100      11.000      11.000      11.000      10.900      10.900      10.800      10.800      10.800      10.700      10.700      10.600      10.600      10.600      10.500      10.500      10.400      10.400      10.400      10.300      10.300      10.200      10.200      10.200      10.100      10.100      10.000      10.000       9.960       9.920       9.880       9.840       9.800       9.760       9.720       9.680       9.640       9.600       9.560       9.520       9.480       9.440       9.400       9.360       9.320       9.280       9.240       9.200       9.160       9.120       9.080       9.040       9.000       8.960       8.920       8.880       8.840       8.800       8.760       8.720       8.680       8.640       8.600       8.560       8.520       8.480       8.440       8.400       8.360       8.320       8.280       8.240       8.200       8.160       8.120       8.080       8.040       8.000       7.960       7.920       7.880       7.840       7.800       7.760       7.720       7.680       7.640       7.610       7.570       7.540       7.500       6.530       6.490       6.460       6.420       6.390       6.350       6.320       6.280       6.250       6.210       6.180       6.140       6.110       6.070       6.040       6.000       5.970       5.930       5.900       5.860       5.830       5.790       5.760       5.720       5.690       5.650       5.620       5.580       5.550       5.510       5.480       5.440       5.410       5.370       5.340       5.300       5.270       5.230       5.200       5.160       5.130       5.090       5.060       5.020       4.990       4.950       4.920       4.880       4.850       4.810       4.780       4.740       4.710       4.670       4.640       4.600       4.570       4.460       4.350       4.230       4.120       4.000       3.880       3.760       3.640       3.530       3.410       3.300       3.200       3.090       3.000       2.910       2.820       2.740       2.660       2.590       2.520
13.500      13.500      13.500      13.500      13.500      13.500      13.500      13.500      13.500      13.500      13.500      13.500      13.500      13.500      13.500      13.500      13.500      13.500      13.500      13.500      13.500      13.500      13.500      13.500      13.500      13.500      13.500      13.500      13.500      13.500      13.500      13.400      13.300      13.300      13.200      13.100      13.000      13.000      12.900      12.800      12.800      12.700      12.600      12.600      12.500      12.500      12.400      12.400      12.400      12.300      12.300      12.200      12.200      12.200      12.100      12.100      12.000      12.000      12.000      11.900      11.900      11.800      11.800      11.800      11.700      11.700      11.600      11.600      11.600      11.500      11.500      11.400      11.400      11.400      11.300      11.300      11.200      11.200      11.200      11.100      11.100      11.000      11.000      11.000      10.900      10.900      10.800      10.800      10.800      10.700      10.700      10.600      10.600      10.600      10.500      10.500      10.400      10.400      10.400      10.300      10.300      10.200      10.200      10.200      10.100      10.100      10.000      10.000       9.960       9.920       9.880       9.840       9.800       9.760       9.720       9.680       9.640       9.600       9.560       9.520       9.480       9.440       9.400       9.360       9.320       9.280       9.240       9.200       9.160       9.120       9.080       9.040       9.000       8.960       8.920       8.880       8.840       8.800       8.760       8.720       8.680       8.640       8.600       8.560       8.520       8.480       8.440       8.400       8.360       8.320       8.280       8.240       8.200       8.160       8.120       8.080       8.040       8.000       7.960       7.920       7.880       7.840       7.800       7.760       7.720       7.680       7.640       7.610       7.570       7.540       7.500       6.530       6.490       6.460       6.420       6.390       6.350       6.320       6.280       6.250       6.210       6.180       6.140       6.110       6.070       6.040       6.000       5.970       5.930       5.900       5.860       5.830       5.790       5.760       5.720       5.690       5.650       5.620       5.580       5.550       5.510       5.480       5.440       5.410       5.370       5.340       5.300       5.270       5.230       5.200       5.160       5.130       5.090       5.060       5.020       4.990       4.950       4.920       4.880       4.850       4.810       4.780       4.740       4.710       4.670       4.640       4.600       4.570       4.460       4.350       4.230       4.110       4.000       3.880       3.760       3.640       3.520       3.410       3.290       3.190       3.080       2.990       2.890       2.810       2.720       2.640       2.570       2.500
13.500      13.500      13.500      13.500      13.500      13.500      13.500      13.500      13.500      13.500      13.500      13.500      13.500      13.500      13.500      13.500      13.500      13.500      13.500      13.500      13.500      13.500      13.500      13.500      13.500      13.500      13.500      13.500      13.500      13.500      13.500      13.400      13.300      13.300      13.200      13.100      13.000      13.000      12.900      12.800      12.800      12.700      12.600      12.600      12.500      12.500      12.400      12.400      12.400      12.300      12.300      12.200      12.200      12.200      12.100      12.100      12.000      12.000      12.000      11.900      11.900      11.800      11.800      11.800      11.700      11.700      11.600      11.600      11.600      11.500      11.500      11.400      11.400      11.400      11.300      11.300      11.200      11.200      11.200      11.100      11.100      11.000      11.000      11.000      10.900      10.900      10.800      10.800      10.800      10.700      10.700      10.600      10.600      10.600      10.500      10.500      10.400      10.400      10.400      10.300      10.300      10.200      10.200      10.200      10.100      10.100      10.000      10.000       9.960       9.920       9.880       9.840       9.800       9.760       9.720       9.680       9.640       9.600       9.560       9.520       9.480       9.440       9.400       9.360       9.320       9.280       9.240       9.200       9.160       9.120       9.080       9.040       9.000       8.960       8.920       8.880       8.840       8.800       8.760       8.720       8.680       8.640       8.600       8.560       8.520       8.480       8.440       8.400       8.360       8.320       8.280       8.240       8.200       8.160       8.120       8.080       8.040       8.000       7.960       7.920       7.880       7.840       7.800       7.760       7.720       7.680       7.640       7.610       7.570       7.540       7.500       6.530       6.500       6.460       6.430       6.390       6.360       6.320       6.290       6.250       6.220       6.180       6.150       6.110       6.080       6.040       6.010       5.970       5.940       5.900       5.870       5.830       5.800       5.760       5.730       5.690       5.660       5.620       5.590       5.550       5.520       5.480       5.450       5.410       5.380       5.340       5.310       5.270       5.240       5.200       5.170       5.130       5.100       5.060       5.030       4.990       4.960       4.920       4.890       4.850       4.820       4.780       4.750       4.710       4.680       4.640       4.610       4.570       4.460       4.350       4.230       4.110       3.990       3.870       3.750       3.630       3.510       3.400       3.290       3.180       3.070       2.970       2.880       2.790       2.700       2.620       2.550       2.480
13.500      13.500      13.500      13.500      13.500      13.500      13.500      13.500      13.500      13.500      13.500      13.500      13.500      13.500      13.500      13.500      13.500      13.500      13.500      13.500      13.500      13.500      13.500      13.500      13.500      13.500      13.500      13.500      13.500      13.500      13.500      13.400      13.300      13.300      13.200      13.100      13.000      13.000      12.900      12.800      12.800      12.700      12.600      12.600      12.500      12.500      12.400      12.400      12.400      12.300      12.300      12.200      12.200      12.200      12.100      12.100      12.000      12.000      12.000      11.900      11.900      11.800      11.800      11.800      11.700      11.700      11.600      11.600      11.600      11.500      11.500      11.400      11.400      11.400      11.300      11.300      11.200      11.200      11.200      11.100      11.100      11.000      11.000      11.000      10.900      10.900      10.800      10.800      10.800      10.700      10.700      10.600      10.600      10.600      10.500      10.500      10.400      10.400      10.400      10.300      10.300      10.200      10.200      10.200      10.100      10.100      10.000      10.000       9.960       9.920       9.880       9.840       9.800       9.760       9.720       9.680       9.640       9.600       9.560       9.520       9.480       9.440       9.400       9.360       9.320       9.280       9.240       9.200       9.160       9.120       9.080       9.040       9.000       8.960       8.920       8.880       8.840       8.800       8.760       8.720       8.680       8.640       8.600       8.560       8.520       8.480       8.440       8.400       8.360       8.320       8.280       8.240       8.200       8.160       8.120       8.080       8.040       8.000       7.960       7.920       7.880       7.840       7.800       7.760       7.720       7.680       7.640       7.610       7.570       7.540       7.500       6.530       6.500       6.460       6.430       6.390       6.360       6.320       6.290       6.250       6.220       6.180       6.150       6.110       6.080       6.040       6.010       5.970       5.940       5.900       5.870       5.830       5.800       5.760       5.730       5.690       5.660       5.620       5.590       5.550       5.520       5.480       5.450       5.410       5.380       5.340       5.310       5.270       5.240       5.200       5.170       5.130       5.100       5.060       5.030       4.990       4.960       4.920       4.890       4.850       4.820       4.780       4.750       4.710       4.680       4.640       4.610       4.570       4.470       4.350       4.240       4.120       3.990       3.870       3.750       3.630       3.510       3.390       3.280       3.170       3.060       2.960       2.860       2.770       2.680       2.600       2.520       2.450
13.500      13.500      13.500      13.500      13.500      13.500      13.500      13.500      13.500      13.500      13.500      13.500      13.500      13.500      13.500      13.500      13.500      13.500      13.500      13.500      13.500      13.500      13.500      13.500      13.500      13.500      13.500      13.500      13.500      13.500      13.500      13.400      13.300      13.300      13.200      13.100      13.000      13.000      12.900      12.800      12.800      12.700      12.600      12.600      12.500      12.500      12.400      12.400      12.400      12.300      12.300      12.200      12.200      12.200      12.100      12.100      12.000      12.000      12.000      11.900      11.900      11.800      11.800      11.800      11.700      11.700      11.600      11.600      11.600      11.500      11.500      11.400      11.400      11.400      11.300      11.300      11.200      11.200      11.200      11.100      11.100      11.000      11.000      11.000      10.900      10.900      10.800      10.800      10.800      10.700      10.700      10.600      10.600      10.600      10.500      10.500      10.400      10.400      10.400      10.300      10.300      10.200      10.200      10.200      10.100      10.100      10.000      10.000       9.960       9.920       9.880       9.840       9.800       9.760       9.720       9.680       9.640       9.600       9.560       9.520       9.480       9.440       9.400       9.360       9.320       9.280       9.240       9.200       9.160       9.120       9.080       9.040       9.000       8.960       8.920       8.880       8.840       8.800       8.760       8.720       8.680       8.640       8.600       8.560       8.520       8.480       8.440       8.400       8.360       8.320       8.280       8.240       8.200       8.160       8.120       8.080       8.040       8.000       7.960       7.920       7.880       7.840       7.800       7.760       7.720       7.680       7.640       7.610       7.570       7.540       7.500       6.540       6.500       6.470       6.430       6.400       6.360       6.330       6.290       6.260       6.220       6.190       6.150       6.120       6.080       6.050       6.010       5.980       5.940       5.910       5.870       5.840       5.800       5.770       5.730       5.700       5.660       5.630       5.590       5.560       5.520       5.490       5.450       5.420       5.380       5.350       5.310       5.280       5.240       5.210       5.170       5.140       5.100       5.070       5.030       5.000       4.960       4.930       4.890       4.860       4.820       4.790       4.750       4.720       4.680       4.650       4.610       4.580       4.470       4.350       4.240       4.120       4.000       3.870       3.750       3.630       3.500       3.380       3.270       3.150       3.040       2.940       2.840       2.740       2.650       2.570       2.490       2.420
13.500      13.500      13.500      13.500      13.500      13.500      13.500      13.500      13.500      13.500      13.500      13.500      13.500      13.500      13.500      13.500      13.500      13.500      13.500      13.500      13.500      13.500      13.500      13.500      13.500      13.500      13.500      13.500      13.500      13.500      13.500      13.400      13.300      13.300      13.200      13.100      13.000      13.000      12.900      12.800      12.800      12.700      12.600      12.600      12.500      12.500      12.400      12.400      12.400      12.300      12.300      12.200      12.200      12.200      12.100      12.100      12.000      12.000      12.000      11.900      11.900      11.800      11.800      11.800      11.700      11.700      11.600      11.600      11.600      11.500      11.500      11.400      11.400      11.400      11.300      11.300      11.200      11.200      11.200      11.100      11.100      11.000      11.000      11.000      10.900      10.900      10.800      10.800      10.800      10.700      10.700      10.600      10.600      10.600      10.500      10.500      10.400      10.400      10.400      10.300      10.300      10.200      10.200      10.200      10.100      10.100      10.000      10.000       9.960       9.920       9.880       9.840       9.800       9.760       9.720       9.680       9.640       9.600       9.560       9.520       9.480       9.440       9.400       9.360       9.320       9.280       9.240       9.200       9.160       9.120       9.080       9.040       9.000       8.960       8.920       8.880       8.840       8.800       8.760       8.720       8.680       8.640       8.600       8.560       8.520       8.480       8.440       8.400       8.360       8.320       8.280       8.240       8.200       8.160       8.120       8.080       8.040       8.000       7.960       7.920       7.880       7.840       7.800       7.760       7.720       7.680       7.640       7.610       7.570       7.540       7.500       6.540       6.510       6.470       6.440       6.400       6.370       6.330       6.300       6.260       6.230       6.190       6.160       6.120       6.090       6.050       6.020       5.980       5.950       5.910       5.880       5.840       5.810       5.770       5.740       5.700       5.670       5.630       5.600       5.560       5.530       5.490       5.460       5.420       5.390       5.350       5.320       5.280       5.250       5.210       5.180       5.140       5.110       5.070       5.040       5.000       4.970       4.930       4.900       4.860       4.830       4.790       4.760       4.720       4.690       4.650       4.620       4.580       4.470       4.360       4.240       4.120       4.000       3.870       3.750       3.620       3.500       3.380       3.260       3.140       3.030       2.920       2.810       2.720       2.620       2.540       2.450       2.380
13.500      13.500      13.500      13.500      13.500      13.500      13.500      13.500      13.500      13.500      13.500      13.500      13.500      13.500      13.500      13.500      13.500      13.500      13.500      13.500      13.500      13.500      13.500      13.500      13.500      13.500      13.500      13.500      13.500      13.500      13.500      13.400      13.300      13.300      13.200      13.100      13.000      13.000      12.900      12.800      12.800      12.700      12.600      12.600      12.500      12.500      12.400      12.400      12.400      12.300      12.300      12.200      12.200      12.200      12.100      12.100      12.000      12.000      12.000      11.900      11.900      11.800      11.800      11.800      11.700      11.700      11.600      11.600      11.600      11.500      11.500      11.400      11.400      11.400      11.300      11.300      11.200      11.200      11.200      11.100      11.100      11.000      11.000      11.000      10.900      10.900      10.800      10.800      10.800      10.700      10.700      10.600      10.600      10.600      10.500      10.500      10.400      10.400      10.400      10.300      10.300      10.200      10.200      10.200      10.100      10.100      10.000      10.000       9.960       9.920       9.880       9.840       9.800       9.760       9.720       9.680       9.640       9.600       9.560       9.520       9.480       9.440       9.400       9.360       9.320       9.280       9.240       9.200       9.160       9.120       9.080       9.040       9.000       8.960       8.920       8.880       8.840       8.800       8.760       8.720       8.680       8.640       8.600       8.560       8.520       8.480       8.440       8.400       8.360       8.320       8.280       8.240       8.200       8.160       8.120       8.080       8.040       8.000       7.960       7.920       7.880       7.840       7.800       7.760       7.720       7.680       7.640       7.610       7.570       7.540       7.500       6.550       6.520       6.480       6.450       6.410       6.380       6.340       6.310       6.270       6.240       6.200       6.170       6.130       6.100       6.060       6.030       5.990       5.960       5.920       5.890       5.850       5.820       5.780       5.750       5.710       5.680       5.640       5.610       5.570       5.540       5.500       5.470       5.430       5.400       5.360       5.330       5.290       5.260       5.220       5.190       5.150       5.120       5.080       5.050       5.010       4.980       4.940       4.910       4.870       4.840       4.800       4.770       4.730       4.700       4.660       4.630       4.590       4.480       4.360       4.250       4.120       4.000       3.870       3.750       3.620       3.490       3.370       3.240       3.120       3.000       2.890       2.780       2.680       2.590       2.490       2.410       2.330
13.500      13.500      13.500      13.500      13.500      13.500      13.500      13.500      13.500      13.500      13.500      13.500      13.500      13.500      13.500      13.500      13.500      13.500      13.500      13.500      13.500      13.500      13.500      13.500      13.500      13.500      13.500      13.500      13.500      13.500      13.500      13.400      13.300      13.300      13.200      13.100      13.000      13.000      12.900      12.800      12.800      12.700      12.600      12.600      12.500      12.500      12.400      12.400      12.400      12.300      12.300      12.200      12.200      12.200      12.100      12.100      12.000      12.000      12.000      11.900      11.900      11.800      11.800      11.800      11.700      11.700      11.600      11.600      11.600      11.500      11.500      11.400      11.400      11.400      11.300      11.300      11.200      11.200      11.200      11.100      11.100      11.000      11.000      11.000      10.900      10.900      10.800      10.800      10.800      10.700      10.700      10.600      10.600      10.600      10.500      10.500      10.400      10.400      10.400      10.300      10.300      10.200      10.200      10.200      10.100      10.100      10.000      10.000       9.960       9.920       9.880       9.840       9.800       9.760       9.720       9.680       9.640       9.600       9.560       9.520       9.480       9.440       9.400       9.360       9.320       9.280       9.240       9.200       9.160       9.120       9.080       9.040       9.000       8.960       8.920       8.880       8.840       8.800       8.760       8.720       8.680       8.640       8.600       8.560       8.520       8.480       8.440       8.400       8.360       8.320       8.280       8.240       8.200       8.160       8.120       8.080       8.040       8.000       7.960       7.920       7.880       7.840       7.800       7.760       7.720       7.680       7.640       7.610       7.570       7.540       7.500       6.560       6.520       6.490       6.450       6.420       6.380       6.350       6.310       6.280       6.240       6.210       6.170       6.140       6.100       6.070       6.030       6.000       5.960       5.930       5.890       5.860       5.820       5.790       5.750       5.720       5.680       5.650       5.610       5.580       5.540       5.510       5.470       5.440       5.400       5.370       5.330       5.300       5.260       5.230       5.190       5.160       5.120       5.090       5.050       5.020       4.980       4.950       4.910       4.880       4.840       4.810       4.770       4.740       4.700       4.670       4.630       4.600       4.490       4.370       4.250       4.130       4.000       3.870       3.740       3.610       3.480       3.360       3.230       3.100       2.980       2.860       2.750       2.640       2.540       2.450       2.360       2.280
13.500      13.500      13.500      13.500      13.500      13.500      13.500      13.500      13.500      13.500      13.500      13.500      13.500      13.500      13.500      13.500      13.500      13.500      13.500      13.500      13.500      13.500      13.500      13.500      13.500      13.500      13.500      13.500      13.500      13.500      13.500      13.400      13.300      13.300      13.200      13.100      13.000      13.000      12.900      12.800      12.800      12.700      12.600      12.600      12.500      12.500      12.400      12.400      12.400      12.300      12.300      12.200      12.200      12.200      12.100      12.100      12.000      12.000      12.000      11.900      11.900      11.800      11.800      11.800      11.700      11.700      11.600      11.600      11.600      11.500      11.500      11.400      11.400      11.400      11.300      11.300      11.200      11.200      11.200      11.100      11.100      11.000      11.000      11.000      10.900      10.900      10.800      10.800      10.800      10.700      10.700      10.600      10.600      10.600      10.500      10.500      10.400      10.400      10.400      10.300      10.300      10.200      10.200      10.200      10.100      10.100      10.000      10.000       9.960       9.920       9.880       9.840       9.800       9.760       9.720       9.680       9.640       9.600       9.560       9.520       9.480       9.440       9.400       9.360       9.320       9.280       9.240       9.200       9.160       9.120       9.080       9.040       9.000       8.960       8.920       8.880       8.840       8.800       8.760       8.720       8.680       8.640       8.600       8.560       8.520       8.480       8.440       8.400       8.360       8.320       8.280       8.240       8.200       8.160       8.120       8.080       8.040       8.000       7.960       7.920       7.880       7.840       7.800       7.760       7.720       7.680       7.640       7.610       7.570       7.540       7.500       6.570       6.530       6.500       6.460       6.430       6.390       6.360       6.320       6.290       6.250       6.220       6.180       6.150       6.110       6.080       6.040       6.010       5.970       5.940       5.900       5.870       5.830       5.800       5.760       5.730       5.690       5.660       5.620       5.590       5.550       5.520       5.480       5.450       5.410       5.380       5.340       5.310       5.270       5.240       5.200       5.170       5.130       5.100       5.060       5.030       4.990       4.960       4.920       4.890       4.850       4.820       4.780       4.750       4.710       4.680       4.640       4.610       4.490       4.380       4.260       4.130       4.010       3.880       3.740       3.610       3.480       3.340       3.210       3.080       2.950       2.830       2.710       2.600       2.490       2.390       2.300       2.210
13.500      13.500      13.500      13.500      13.500      13.500      13.500      13.500      13.500      13.500      13.500      13.500      13.500      13.500      13.500      13.500      13.500      13.500      13.500      13.500      13.500      13.500      13.500      13.500      13.500      13.500      13.500      13.500      13.500      13.500      13.500      13.400      13.300      13.300      13.200      13.100      13.000      13.000      12.900      12.800      12.800      12.700      12.600      12.600      12.500      12.500      12.400      12.400      12.400      12.300      12.300      12.200      12.200      12.200      12.100      12.100      12.000      12.000      12.000      11.900      11.900      11.800      11.800      11.800      11.700      11.700      11.600      11.600      11.600      11.500      11.500      11.400      11.400      11.400      11.300      11.300      11.200      11.200      11.200      11.100      11.100      11.000      11.000      11.000      10.900      10.900      10.800      10.800      10.800      10.700      10.700      10.600      10.600      10.600      10.500      10.500      10.400      10.400      10.400      10.300      10.300      10.200      10.200      10.200      10.100      10.100      10.000      10.000       9.960       9.920       9.880       9.840       9.800       9.760       9.720       9.680       9.640       9.600       9.560       9.520       9.480       9.440       9.400       9.360       9.320       9.280       9.240       9.200       9.160       9.120       9.080       9.040       9.000       8.960       8.920       8.880       8.840       8.800       8.760       8.720       8.680       8.640       8.600       8.560       8.520       8.480       8.440       8.400       8.360       8.320       8.280       8.240       8.200       8.160       8.120       8.080       8.040       8.000       7.960       7.920       7.880       7.840       7.800       7.760       7.720       7.680       7.640       7.610       7.570       7.540       7.500       6.580       6.540       6.510       6.470       6.440       6.400       6.370       6.330       6.300       6.260       6.230       6.190       6.160       6.120       6.090       6.050       6.020       5.980       5.950       5.910       5.880       5.840       5.810       5.770       5.740       5.700       5.670       5.630       5.600       5.560       5.530       5.490       5.460       5.420       5.390       5.350       5.320       5.280       5.250       5.210       5.180       5.140       5.110       5.070       5.040       5.000       4.970       4.930       4.900       4.860       4.830       4.790       4.760       4.720       4.690       4.650       4.620       4.500       4.390       4.260       4.140       4.010       3.880       3.740       3.610       3.470       3.330       3.190       3.060       2.930       2.800       2.670       2.550       2.440       2.330       2.230       2.140
13.500      13.500      13.500      13.500      13.500      13.500      13.500      13.500      13.500      13.500      13.500      13.500      13.500      13.500      13.500      13.500      13.500      13.500      13.500      13.500      13.500      13.500      13.500      13.500      13.500      13.500      13.500      13.500      13.500      13.500      13.500      13.400      13.300      13.300      13.200      13.100      13.000      13.000      12.900      12.800      12.800      12.700      12.600      12.600      12.500      12.500      12.400      12.400      12.400      12.300      12.300      12.200      12.200      12.200      12.100      12.100      12.000      12.000      12.000      11.900      11.900      11.800      11.800      11.800      11.700      11.700      11.600      11.600      11.600      11.500      11.500      11.400      11.400      11.400      11.300      11.300      11.200      11.200      11.200      11.100      11.100      11.000      11.000      11.000      10.900      10.900      10.800      10.800      10.800      10.700      10.700      10.600      10.600      10.600      10.500      10.500      10.400      10.400      10.400      10.300      10.300      10.200      10.200      10.200      10.100      10.100      10.000      10.000       9.960       9.920       9.880       9.840       9.800       9.760       9.720       9.680       9.640       9.600       9.560       9.520       9.480       9.440       9.400       9.360       9.320       9.280       9.240       9.200       9.160       9.120       9.080       9.040       9.000       8.960       8.920       8.880       8.840       8.800       8.760       8.720       8.680       8.640       8.600       8.560       8.520       8.480       8.440       8.400       8.360       8.320       8.280       8.240       8.200       8.160       8.120       8.080       8.040       8.000       7.960       7.920       7.880       7.840       7.800       7.760       7.720       7.680       7.640       7.610       7.570       7.540       7.500       6.590       6.550       6.520       6.480       6.450       6.410       6.380       6.340       6.310       6.270       6.240       6.200       6.170       6.130       6.100       6.060       6.030       5.990       5.960       5.920       5.890       5.850       5.820       5.780       5.750       5.710       5.680       5.640       5.610       5.570       5.540       5.500       5.470       5.430       5.400       5.360       5.330       5.290       5.260       5.220       5.190       5.150       5.120       5.080       5.050       5.010       4.980       4.940       4.910       4.870       4.840       4.800       4.770       4.730       4.700       4.660       4.630       4.510       4.390       4.270       4.150       4.020       3.880       3.740       3.600       3.460       3.320       3.180       3.040       2.900       2.760       2.630       2.500       2.380       2.270       2.170       2.070
13.500      13.500      13.500      13.500      13.500      13.500      13.500      13.500      13.500      13.500      13.500      13.500      13.500      13.500      13.500      13.500      13.500      13.500      13.500      13.500      13.500      13.500      13.500      13.500      13.500      13.500      13.500      13.500      13.500      13.500      13.500      13.400      13.300      13.300      13.200      13.100      13.000      13.000      12.900      12.800      12.800      12.700      12.600      12.600      12.500      12.500      12.400      12.400      12.400      12.300      12.300      12.200      12.200      12.200      12.100      12.100      12.000      12.000      12.000      11.900      11.900      11.800      11.800      11.800      11.700      11.700      11.600      11.600      11.600      11.500      11.500      11.400      11.400      11.400      11.300      11.300      11.200      11.200      11.200      11.100      11.100      11.000      11.000      11.000      10.900      10.900      10.800      10.800      10.800      10.700      10.700      10.600      10.600      10.600      10.500      10.500      10.400      10.400      10.400      10.300      10.300      10.200      10.200      10.200      10.100      10.100      10.000      10.000       9.960       9.920       9.880       9.840       9.800       9.760       9.720       9.680       9.640       9.600       9.560       9.520       9.480       9.440       9.400       9.360       9.320       9.280       9.240       9.200       9.160       9.120       9.080       9.040       9.000       8.960       8.920       8.880       8.840       8.800       8.760       8.720       8.680       8.640       8.600       8.560       8.520       8.480       8.440       8.400       8.360       8.320       8.280       8.240       8.200       8.160       8.120       8.080       8.040       8.000       7.960       7.920       7.880       7.840       7.800       7.760       7.720       7.680       7.640       7.610       7.570       7.540       7.500       6.600       6.560       6.530       6.490       6.460       6.420       6.390       6.350       6.320       6.280       6.250       6.210       6.180       6.140       6.110       6.070       6.040       6.000       5.970       5.930       5.900       5.860       5.830       5.790       5.760       5.720       5.690       5.650       5.620       5.580       5.550       5.510       5.480       5.440       5.410       5.370       5.340       5.300       5.270       5.230       5.200       5.160       5.130       5.090       5.060       5.020       4.990       4.950       4.920       4.880       4.850       4.810       4.780       4.740       4.710       4.670       4.640       4.520       4.400       4.280       4.150       4.020       3.880       3.740       3.600       3.450       3.310       3.160       3.010       2.870       2.730       2.590       2.460       2.330       2.210       2.100       2.000
13.500      13.500      13.500      13.500      13.500      13.500      13.500      13.500      13.500      13.500      13.500      13.500      13.500      13.500      13.500      13.500      13.500      13.500      13.500      13.500      13.500      13.500      13.500      13.500      13.500      13.500      13.500      13.500      13.500      13.500      13.500      13.400      13.300      13.300      13.200      13.100      13.000      13.000      12.900      12.800      12.800      12.700      12.600      12.600      12.500      12.500      12.400      12.400      12.400      12.300      12.300      12.200      12.200      12.200      12.100      12.100      12.000      12.000      12.000      11.900      11.900      11.800      11.800      11.800      11.700      11.700      11.600      11.600      11.600      11.500      11.500      11.400      11.400      11.400      11.300      11.300      11.200      11.200      11.200      11.100      11.100      11.000      11.000      11.000      10.900      10.900      10.800      10.800      10.800      10.700      10.700      10.600      10.600      10.600      10.500      10.500      10.400      10.400      10.400      10.300      10.300      10.200      10.200      10.200      10.100      10.100      10.000      10.000       9.960       9.920       9.880       9.840       9.800       9.760       9.720       9.680       9.640       9.600       9.560       9.520       9.480       9.440       9.400       9.360       9.320       9.280       9.240       9.200       9.160       9.120       9.080       9.040       9.000       8.960       8.920       8.880       8.840       8.800       8.760       8.720       8.680       8.640       8.600       8.560       8.520       8.480       8.440       8.400       8.360       8.320       8.280       8.240       8.200       8.160       8.120       8.080       8.040       8.000       7.960       7.920       7.880       7.840       7.800       7.760       7.720       7.680       7.640       7.610       7.570       7.540       7.500       6.610       6.570       6.540       6.500       6.470       6.430       6.400       6.360       6.330       6.290       6.260       6.220       6.190       6.150       6.120       6.080       6.050       6.010       5.980       5.940       5.910       5.870       5.840       5.800       5.770       5.730       5.700       5.660       5.630       5.590       5.560       5.520       5.490       5.450       5.420       5.380       5.350       5.310       5.280       5.240       5.210       5.170       5.140       5.100       5.070       5.030       5.000       4.960       4.930       4.890       4.860       4.820       4.790       4.750       4.720       4.680       4.650       4.530       4.420       4.290       4.160       4.030       3.890       3.750       3.600       3.450       3.300       3.150       2.990       2.840       2.690       2.550       2.410       2.280       2.150       2.040       1.940
13.500      13.500      13.500      13.500      13.500      13.500      13.500      13.500      13.500      13.500      13.500      13.500      13.500      13.500      13.500      13.500      13.500      13.500      13.500      13.500      13.500      13.500      13.500      13.500      13.500      13.500      13.500      13.500      13.500      13.500      13.500      13.400      13.300      13.300      13.200      13.100      13.000      13.000      12.900      12.800      12.800      12.700      12.600      12.600      12.500      12.500      12.400      12.400      12.400      12.300      12.300      12.200      12.200      12.200      12.100      12.100      12.000      12.000      12.000      11.900      11.900      11.800      11.800      11.800      11.700      11.700      11.600      11.600      11.600      11.500      11.500      11.400      11.400      11.400      11.300      11.300      11.200      11.200      11.200      11.100      11.100      11.000      11.000      11.000      10.900      10.900      10.800      10.800      10.800      10.700      10.700      10.600      10.600      10.600      10.500      10.500      10.400      10.400      10.400      10.300      10.300      10.200      10.200      10.200      10.100      10.100      10.000      10.000       9.960       9.920       9.880       9.840       9.800       9.760       9.720       9.680       9.640       9.600       9.560       9.520       9.480       9.440       9.400       9.360       9.320       9.280       9.240       9.200       9.160       9.120       9.080       9.040       9.000       8.960       8.920       8.880       8.840       8.800       8.760       8.720       8.680       8.640       8.600       8.560       8.520       8.480       8.440       8.400       8.360       8.320       8.280       8.240       8.200       8.160       8.120       8.080       8.040       8.000       7.960       7.920       7.880       7.840       7.800       7.760       7.720       7.680       7.640       7.610       7.570       7.540       7.500       6.620       6.590       6.550       6.520       6.480       6.450       6.410       6.380       6.340       6.310       6.270       6.240       6.200       6.170       6.130       6.100       6.060       6.030       5.990       5.960       5.920       5.890       5.850       5.820       5.780       5.750       5.710       5.680       5.640       5.610       5.570       5.540       5.500       5.470       5.430       5.400       5.360       5.330       5.290       5.260       5.220       5.190       5.150       5.120       5.080       5.050       5.010       4.980       4.940       4.910       4.870       4.840       4.800       4.770       4.730       4.700       4.660       4.550       4.430       4.300       4.170       4.040       3.900       3.750       3.600       3.450       3.290       3.140       2.980       2.820       2.670       2.520       2.370       2.230       2.110       1.990       1.880
13.500      13.500      13.500      13.500      13.500      13.500      13.500      13.500      13.500      13.500      13.500      13.500      13.500      13.500      13.500      13.500      13.500      13.500      13.500      13.500      13.500      13.500      13.500      13.500      13.500      13.500      13.500      13.500      13.500      13.500      13.500      13.400      13.300      13.300      13.200      13.100      13.000      13.000      12.900      12.800      12.800      12.700      12.600      12.600      12.500      12.500      12.400      12.400      12.400      12.300      12.300      12.200      12.200      12.200      12.100      12.100      12.000      12.000      12.000      11.900      11.900      11.800      11.800      11.800      11.700      11.700      11.600      11.600      11.600      11.500      11.500      11.400      11.400      11.400      11.300      11.300      11.200      11.200      11.200      11.100      11.100      11.000      11.000      11.000      10.900      10.900      10.800      10.800      10.800      10.700      10.700      10.600      10.600      10.600      10.500      10.500      10.400      10.400      10.400      10.300      10.300      10.200      10.200      10.200      10.100      10.100      10.000      10.000       9.960       9.920       9.880       9.840       9.800       9.760       9.720       9.680       9.640       9.600       9.560       9.520       9.480       9.440       9.400       9.360       9.320       9.280       9.240       9.200       9.160       9.120       9.080       9.040       9.000       8.960       8.920       8.880       8.840       8.800       8.760       8.720       8.680       8.640       8.600       8.560       8.520       8.480       8.440       8.400       8.360       8.320       8.280       8.240       8.200       8.160       8.120       8.080       8.040       8.000       7.960       7.920       7.880       7.840       7.800       7.760       7.720       7.680       7.640       7.610       7.570       7.540       7.500       6.640       6.600       6.570       6.530       6.500       6.460       6.430       6.390       6.360       6.320       6.290       6.250       6.220       6.180       6.150       6.110       6.080       6.040       6.010       5.970       5.940       5.900       5.870       5.830       5.800       5.760       5.730       5.690       5.660       5.620       5.590       5.550       5.520       5.480       5.450       5.410       5.380       5.340       5.310       5.270       5.240       5.200       5.170       5.130       5.100       5.060       5.030       4.990       4.960       4.920       4.890       4.850       4.820       4.780       4.750       4.710       4.680       4.560       4.440       4.320       4.190       4.050       3.910       3.760       3.610       3.450       3.290       3.130       2.970       2.810       2.650       2.490       2.340       2.200       2.070       1.940       1.830
13.500      13.500      13.500      13.500      13.500      13.500      13.500      13.500      13.500      13.500      13.500      13.500      13.500      13.500      13.500      13.500      13.500      13.500      13.500      13.500      13.500      13.500      13.500      13.500      13.500      13.500      13.500      13.500      13.500      13.500      13.500      13.400      13.300      13.300      13.200      13.100      13.000      13.000      12.900      12.800      12.800      12.700      12.600      12.600      12.500      12.500      12.400      12.400      12.400      12.300      12.300      12.200      12.200      12.200      12.100      12.100      12.000      12.000      12.000      11.900      11.900      11.800      11.800      11.800      11.700      11.700      11.600      11.600      11.600      11.500      11.500      11.400      11.400      11.400      11.300      11.300      11.200      11.200      11.200      11.100      11.100      11.000      11.000      11.000      10.900      10.900      10.800      10.800      10.800      10.700      10.700      10.600      10.600      10.600      10.500      10.500      10.400      10.400      10.400      10.300      10.300      10.200      10.200      10.200      10.100      10.100      10.000      10.000       9.960       9.920       9.880       9.840       9.800       9.760       9.720       9.680       9.640       9.600       9.560       9.520       9.480       9.440       9.400       9.360       9.320       9.280       9.240       9.200       9.160       9.120       9.080       9.040       9.000       8.960       8.920       8.880       8.840       8.800       8.760       8.720       8.680       8.640       8.600       8.560       8.520       8.480       8.440       8.400       8.360       8.320       8.280       8.240       8.200       8.160       8.120       8.080       8.040       8.000       7.960       7.920       7.880       7.840       7.800       7.760       7.720       7.680       7.640       7.610       7.570       7.540       7.500       6.650       6.620       6.580       6.550       6.510       6.480       6.440       6.410       6.370       6.340       6.300       6.270       6.230       6.200       6.160       6.130       6.090       6.060       6.020       5.990       5.950       5.920       5.880       5.850       5.810       5.780       5.740       5.710       5.670       5.640       5.600       5.570       5.530       5.500       5.460       5.430       5.390       5.360       5.320       5.290       5.250       5.220       5.180       5.150       5.110       5.080       5.040       5.010       4.970       4.940       4.900       4.870       4.830       4.800       4.760       4.730       4.690       4.580       4.460       4.330       4.200       4.060       3.920       3.770       3.620       3.460       3.300       3.130       2.970       2.800       2.640       2.480       2.330       2.180       2.040       1.910       1.800
13.500      13.500      13.500      13.500      13.500      13.500      13.500      13.500      13.500      13.500      13.500      13.500      13.500      13.500      13.500      13.500      13.500      13.500      13.500      13.500      13.500      13.500      13.500      13.500      13.500      13.500      13.500      13.500      13.500      13.500      13.500      13.400      13.300      13.300      13.200      13.100      13.000      13.000      12.900      12.800      12.800      12.700      12.600      12.600      12.500      12.500      12.400      12.400      12.400      12.300      12.300      12.200      12.200      12.200      12.100      12.100      12.000      12.000      12.000      11.900      11.900      11.800      11.800      11.800      11.700      11.700      11.600      11.600      11.600      11.500      11.500      11.400      11.400      11.400      11.300      11.300      11.200      11.200      11.200      11.100      11.100      11.000      11.000      11.000      10.900      10.900      10.800      10.800      10.800      10.700      10.700      10.600      10.600      10.600      10.500      10.500      10.400      10.400      10.400      10.300      10.300      10.200      10.200      10.200      10.100      10.100      10.000      10.000       9.960       9.920       9.880       9.840       9.800       9.760       9.720       9.680       9.640       9.600       9.560       9.520       9.480       9.440       9.400       9.360       9.320       9.280       9.240       9.200       9.160       9.120       9.080       9.040       9.000       8.960       8.920       8.880       8.840       8.800       8.760       8.720       8.680       8.640       8.600       8.560       8.520       8.480       8.440       8.400       8.360       8.320       8.280       8.240       8.200       8.160       8.120       8.080       8.040       8.000       7.960       7.920       7.880       7.840       7.800       7.760       7.720       7.680       7.640       7.610       7.570       7.540       7.500       6.670       6.630       6.600       6.560       6.530       6.490       6.460       6.420       6.390       6.350       6.320       6.280       6.250       6.210       6.180       6.140       6.110       6.070       6.040       6.000       5.970       5.930       5.900       5.860       5.830       5.790       5.760       5.720       5.690       5.650       5.620       5.580       5.550       5.510       5.480       5.440       5.410       5.370       5.340       5.300       5.270       5.230       5.200       5.160       5.130       5.090       5.060       5.020       4.990       4.950       4.920       4.880       4.850       4.810       4.780       4.740       4.710       4.590       4.470       4.350       4.220       4.080       3.930       3.790       3.630       3.470       3.310       3.140       2.970       2.810       2.640       2.480       2.320       2.170       2.030       1.900       1.780
13.500      13.500      13.500      13.500      13.500      13.500      13.500      13.500      13.500      13.500      13.500      13.500      13.500      13.500      13.500      13.500      13.500      13.500      13.500      13.500      13.500      13.500      13.500      13.500      13.500      13.500      13.500      13.500      13.500      13.500      13.500      13.400      13.300      13.300      13.200      13.100      13.000      13.000      12.900      12.800      12.800      12.700      12.600      12.600      12.500      12.500      12.400      12.400      12.400      12.300      12.300      12.200      12.200      12.200      12.100      12.100      12.000      12.000      12.000      11.900      11.900      11.800      11.800      11.800      11.700      11.700      11.600      11.600      11.600      11.500      11.500      11.400      11.400      11.400      11.300      11.300      11.200      11.200      11.200      11.100      11.100      11.000      11.000      11.000      10.900      10.900      10.800      10.800      10.800      10.700      10.700      10.600      10.600      10.600      10.500      10.500      10.400      10.400      10.400      10.300      10.300      10.200      10.200      10.200      10.100      10.100      10.000      10.000       9.960       9.920       9.880       9.840       9.800       9.760       9.720       9.680       9.640       9.600       9.560       9.520       9.480       9.440       9.400       9.360       9.320       9.280       9.240       9.200       9.160       9.120       9.080       9.040       9.000       8.960       8.920       8.880       8.840       8.800       8.760       8.720       8.680       8.640       8.600       8.560       8.520       8.480       8.440       8.400       8.360       8.320       8.280       8.240       8.200       8.160       8.120       8.080       8.040       8.000       7.960       7.920       7.880       7.840       7.800       7.760       7.720       7.680       7.640       7.610       7.570       7.540       7.500       6.680       6.650       6.610       6.580       6.540       6.510       6.470       6.440       6.400       6.370       6.330       6.300       6.260       6.230       6.190       6.160       6.120       6.090       6.050       6.020       5.980       5.950       5.910       5.880       5.840       5.810       5.770       5.740       5.700       5.670       5.630       5.600       5.560       5.530       5.490       5.460       5.420       5.390       5.350       5.320       5.280       5.250       5.210       5.180       5.140       5.110       5.070       5.040       5.000       4.970       4.930       4.900       4.860       4.830       4.790       4.760       4.720       4.610       4.490       4.360       4.230       4.100       3.950       3.800       3.650       3.490       3.330       3.160       2.990       2.820       2.660       2.490       2.330       2.180       2.040       1.910       1.790
13.500      13.500      13.500      13.500      13.500      13.500      13.500      13.500      13.500      13.500      13.500      13.500      13.500      13.500      13.500      13.500      13.500      13.500      13.500      13.500      13.500      13.500      13.500      13.500      13.500      13.500      13.500      13.500      13.500      13.500      13.500      13.400      13.300      13.300      13.200      13.100      13.000      13.000      12.900      12.800      12.800      12.700      12.600      12.600      12.500      12.500      12.400      12.400      12.400      12.300      12.300      12.200      12.200      12.200      12.100      12.100      12.000      12.000      12.000      11.900      11.900      11.800      11.800      11.800      11.700      11.700      11.600      11.600      11.600      11.500      11.500      11.400      11.400      11.400      11.300      11.300      11.200      11.200      11.200      11.100      11.100      11.000      11.000      11.000      10.900      10.900      10.800      10.800      10.800      10.700      10.700      10.600      10.600      10.600      10.500      10.500      10.400      10.400      10.400      10.300      10.300      10.200      10.200      10.200      10.100      10.100      10.000      10.000       9.960       9.920       9.880       9.840       9.800       9.760       9.720       9.680       9.640       9.600       9.560       9.520       9.480       9.440       9.400       9.360       9.320       9.280       9.240       9.200       9.160       9.120       9.080       9.040       9.000       8.960       8.920       8.880       8.840       8.800       8.760       8.720       8.680       8.640       8.600       8.560       8.520       8.480       8.440       8.400       8.360       8.320       8.280       8.240       8.200       8.160       8.120       8.080       8.040       8.000       7.960       7.920       7.880       7.840       7.800       7.760       7.720       7.680       7.640       7.610       7.570       7.540       7.500       6.700       6.660       6.630       6.590       6.560       6.520       6.490       6.450       6.420       6.380       6.350       6.310       6.280       6.240       6.210       6.170       6.140       6.100       6.070       6.030       6.000       5.960       5.930       5.890       5.860       5.820       5.790       5.750       5.720       5.680       5.650       5.610       5.580       5.540       5.510       5.470       5.440       5.400       5.370       5.330       5.300       5.260       5.230       5.190       5.160       5.120       5.090       5.050       5.020       4.980       4.950       4.910       4.880       4.840       4.810       4.770       4.740       4.630       4.510       4.380       4.250       4.120       3.970       3.830       3.670       3.510       3.350       3.180       3.020       2.850       2.680       2.520       2.360       2.210       2.070       1.940       1.820
